ply
format ascii 1.0
comment written by Leonel Ocsa Sanchez
element vertex 356
property float32 x
property float32 y
property float32 z
property uchar red
property uchar green
property uchar blue
end_header

3277.37 25.9614 -3.09868 45 96 159
2549.5 15.5134 0.533717 0 71 121
4672.47 26.6113 -1.0243 104 143 175
4672.47 26.6113 -1.0243 104 143 175
3503.76 19.8159 -1.27934 67 129 175
3308.48 18.4447 -0.682802 61 135 183
3810.6 20.8176 -1.46055 84 138 179
3659.75 19.8027 -1.10257 62 123 167
2637.24 12.965 3.63827 0 70 117
3913.22 18.3673 0.111567 0 54 103
3798.64 17.6729 0.506543 55 115 157
4712.97 20.9023 -0.620539 71 121 163
3821.19 16.413 1.6571 68 120 160
1872.38 7.99915 10.9052 51 107 126
4835.91 20.3695 -0.226003 18 68 110
2377.87 9.56969 9.2059 48 115 164
5252.89 21.0441 -0.244653 27 78 134
4670.93 17.3546 1.84738 60 107 151
3010.04 10.6628 8.43599 59 110 150
2995.47 10.543 1.00422 67 117 153
4381.43 14.7566 4.30716 40 82 129
6485.17 21.5085 0.32621 62 115 172
3859.04 12.2108 7.75057 0 45 110
3166.87 9.83209 10.686 61 107 138
5292.71 14.697 5.89907 0 62 113
3911.23 10.5855 11.1648 0 40 73
6034.64 15.8931 4.65062 63 107 144
4046.24 10.3449 12.0174 91 145 178
5541.23 12.2158 10.9521 0 48 104
6670.14 14.653 7.12663 60 138 191
6745.82 14.5314 7.37134 48 117 174
6158.84 13.0926 10.0962 37 111 167
5344.14 11.3016 12.6538 6 42 96
5823.82 12.2896 11.3589 0 49 100
5667.64 11.9411 11.8099 47 132 188
5667.64 11.9411 11.8099 47 132 188
4698.75 9.78736 15.1813 2 61 117
6537.51 13.4576 9.65717 0 57 116
5887.97 11.403 13.4785 0 56 110
6399.36 12.267 12.158 7 74 129
5520.53 10.0523 18.5764 56 125 174
5410.84 9.85857 8.62238 40 87 125
7518.96 13.2353 10.0432 0 43 77
7468.05 13.0882 10.0746 0 39 72
7584.69 13.1401 10.3269 0 44 80
6925.46 11.5073 14.0815 0 64 119
6916.2 11.1914 14.8685 0 60 113
8372.55 13.1503 10.8488 47 129 187
8345.62 13.1152 10.9393 0 52 115
6255.22 9.79089 17.9657 50 113 151
8298.77 12.9466 11.2838 0 54 119
9341.84 14.5112 6.99129 0 56 117
8758.53 13.5675 9.78952 39 113 169
8583.14 13.0806 12.9497 30 112 167
8583.14 13.0806 11.0243 30 112 167
8510.33 12.7791 13.718 51 131 186
7598.5 11.3723 15.2391 0 40 105
7626.13 11.4001 15.1804 31 106 162
8083 11.9335 11.9602 40 111 174
8083 11.9335 14.049 40 111 174
7528.16 11.0956 15.9238 42 111 161
7898.93 11.4543 15.3317 36 121 177
7777.46 11.2636 12.4285 34 98 156
7777.46 11.2636 13.771 34 98 156
7749.46 11.1926 13.9687 0 43 98
7953.54 11.2406 16.0449 0 70 122
7617.28 10.7627 14.2208 0 65 119
7659.94 10.8122 17.1357 42 125 177
8656.16 12.025 13.7916 34 101 180
7184.38 9.80568 19.9838 26 90 154
8499.57 11.3842 15.7025 72 125 162
7832.67 10.3195 18.9421 32 92 152
7154.96 9.23009 22.0909 0 46 103
7920.3 10.1545 15.4909 8 64 105
7090.53 9.07181 22.6186 0 39 102
7734.09 9.85383 20.5362 0 59 99
6951.06 8.82674 23.3035 0 41 102
8344.57 10.5844 13.5995 70 119 157
6744.12 8.55197 23.9837 54 122 169
7906.7 9.94817 20.263 43 104 144
7454.44 9.34007 22.1454 26 86 138
9105.13 10.8506 15.5179 0 63 112
9105.13 10.8506 15.5179 0 63 112
7342.85 8.59991 24.8639 55 103 137
3242.92 19.6958 -1.4971 0 49 94
3699.05 21.0752 -1.69182 61 122 162
3463.61 18.7969 -0.725343 82 154 201
2459.96 12.7705 3.5411 56 125 174
2796.15 14.4339 2.05458 47 123 172
3375.12 16.2487 1.15679 77 143 192
2482.69 11.5022 5.60407 18 80 126
3859.7 17.7574 0.51702 7 59 106
1633.59 7.45811 11.9207 0 37 56
3533.85 15.4242 2.24777 0 52 113
3933.36 16.881 1.36793 64 120 161
1881.46 7.97907 11.0043 0 50 65
4575.11 19.3006 0.185558 1 53 99
4575.11 19.3006 0.185558 1 53 99
3053.69 12.6389 5.30756 45 102 163
2536.7 10.1352 8.38704 3 57 122
4587.96 17.4037 1.70828 55 107 148
2724.15 10.1248 8.89803 5 60 127
4987.46 18.4847 1.19137 77 145 192
4987.46 18.4847 1.19137 77 145 192
2847.19 10.5095 8.37285 51 103 140
5303.38 18.8099 1.2366 0 54 101
4700.6 16.3192 2.91228 76 121 165
5171.28 17.8522 1.90483 54 120 169
2559.63 8.83312 11.5307 0 38 92
2966.8 10.0809 9.60833 14 59 93
5252.24 17.7815 2.05024 66 133 182
3660.03 12.0802 7.59624 43 121 174
4004.21 12.5768 4.20321 54 141 191
6434.65 19.9544 1.23058 27 66 140
3303.56 10.1693 10.2209 58 104 135
3303.56 10.1693 10.2209 58 104 135
5943.99 17.5102 2.91538 67 125 177
4974.36 13.927 6.64571 0 55 106
3546.96 9.83228 11.588 48 94 125
7825.65 20.7265 1.12591 80 158 205
4316.24 11.0437 11.0548 47 97 133
5488.35 13.7077 7.8841 10 60 118
4489.69 11.1759 11.0824 51 103 143
4371.45 10.8015 11.7356 7 55 89
4358.51 10.7572 11.8102 52 100 134
5699.69 13.5621 8.50917 39 118 169
4559.55 9.65333 15.235 57 136 187
4792.08 9.96156 14.894 0 46 107
6143.15 12.7267 10.8432 45 116 173
4963.18 9.94068 15.3078 0 51 102
5014.39 9.79998 15.7912 44 129 179
5014.39 9.79998 15.7912 44 129 179
5131.66 9.9176 15.6622 53 138 188
7133.99 13.7608 9.08739 0 53 112
6545.25 12.3081 12.2129 32 115 170
7547.9 13.0329 10.5538 0 47 81
7307.13 12.436 12.0141 13 82 125
7754.18 13.162 10.4035 15 67 103
6969.06 11.7733 13.451 39 113 147
6795.66 11.4119 14.1836 36 110 164
6359.52 10.6134 15.4734 47 94 132
6933.49 11.2664 14.647 18 97 148
6423.71 10.3997 16.3311 24 76 117
6248.21 10.0965 16.9952 0 33 68
6231.74 10.0362 17.1326 21 72 105
6277.36 10.0921 17.0497 25 80 117
9294.63 14.4625 7.18353 15 108 153
8672.05 12.7302 11.9022 51 131 190
8422.2 12.2067 13.3971 58 147 198
9224.13 13.3379 9.72954 82 134 170
8299.01 11.8562 14.3859 0 65 128
8226.25 11.7287 14.7266 44 127 183
8202.31 11.676 14.8919 43 124 181
8119.01 11.4674 15.4879 0 55 121
7666.08 10.6031 17.8343 44 127 182
7602.51 10.3388 18.661 0 50 111
8905.54 12.0098 13.5395 32 83 116
7338.55 9.65317 20.7977 0 41 100
7132.41 9.18473 22.2266 0 42 106
7410.22 9.2846 22.3056 0 37 110
9202.78 11.1129 14.4221 11 95 143
9057.91 10.9148 15.327 0 70 119
3165.52 15.9003 1.16175 86 148 189
3165.52 15.9003 1.16175 86 148 189
3212.39 15.7924 1.33658 3 60 115
4276.62 20.5789 -0.869244 72 120 162
2173.33 7.60353 13.0288 1 48 86
4339.25 14.812 4.16519 0 40 107
2956.32 10.0125 9.73995 18 66 100
2987.09 10.0443 9.74649 103 157 188
3734.95 11.0713 9.69793 94 153 185
3734.95 11.0713 9.69793 94 153 185
3451.86 9.86064 11.2999 40 84 115
3451.86 9.86065 3.58244 40 84 115
3233.31 9.19298 12.4602 54 91 119
4321.09 11.5118 10.0414 69 121 157
6184.03 16.4094 4.19829 40 105 156
3917.64 10.2155 12.0154 54 111 143
3917.64 10.2155 12.0154 54 111 143
3962.57 10.2431 12.0667 7 55 91
4264.52 10.9948 11.0683 8 58 94
4491.96 11.5207 10.3035 107 155 189
4232.31 10.7119 11.6397 0 47 79
4509.09 10.9915 11.4436 9 67 103
5111.51 12.0398 10.4431 1 57 106
5070.95 11.9081 10.6654 16 96 149
4930.63 11.3968 11.5289 32 125 181
4728.44 10.6308 12.0285 42 105 143
4728.44 10.6308 12.9203 42 105 143
4515.06 9.33104 16.0566 27 91 146
5290.61 10.7108 14.087 18 124 171
4961.9 9.9815 15.1835 40 126 178
4917.59 9.61058 16.1228 29 111 159
7154 13.8338 8.9566 31 108 164
6600.55 12.1974 12.5128 36 115 166
6600.55 12.1974 12.5128 36 115 166
6600.55 12.1974 12.889 36 115 166
6600.55 12.1974 12.889 36 115 166
7549.45 13.106 10.3745 36 84 118
6912.5 11.585 13.8661 14 104 158
6441.91 10.454 16.1719 27 78 118
7157.47 11.5968 13.8849 66 130 171
6496.34 10.3875 16.5106 17 75 110
5417.75 8.65569 20.8315 10 97 153
9220.97 14.7178 6.8066 51 132 183
9369.55 14.5948 6.77029 10 60 106
8373.1 12.5931 12.2963 1 61 120
8477.22 12.4277 12.7694 0 76 128
8471.43 12.2415 13.2747 0 57 122
7641.66 10.5406 17.9961 33 129 182
8915.73 12.1568 13.1298 27 77 113
8648.47 11.4773 15.3103 76 129 162
6761.73 8.88399 22.6435 0 48 104
6896.82 8.72043 23.6619 0 38 96
7053.23 8.28074 25.7574 5 51 85
5616.38 5.89543 31.8239 15 69 104
3313.66 23.9283 -2.85453 41 95 148
2817.65 14.8255 1.65718 51 128 177
3796.91 19.8552 -0.983135 63 125 165
2693.76 13.03 3.66228 42 124 171
3487.92 16.2433 1.33223 14 67 140
3487.92 16.2433 1.33223 14 67 140
2828.99 12.9177 4.097 48 104 159
2523.27 11.412 5.8499 50 119 168
2525.94 10.9241 6.7599 18 67 129
2521.99 10.091 8.44334 44 101 156
4704.76 17.5772 1.68274 54 128 176
6012.93 21.7286 -0.0416017 58 109 152
4314.06 15.1485 3.72068 2 42 94
2615.7 9.13942 10.9348 0 37 96
6161.22 21.2235 0.300895 60 113 150
3093.39 10.1729 9.70833 27 72 105
3077.45 10.1034 9.83087 59 103 134
2988.5 9.15398 9.78206 89 134 161
2988.54 9.15396 11.9255 89 134 161
3059.43 9.22284 11.9355 52 92 120
3059.43 9.22284 11.9355 52 92 120
5002.93 14.0569 6.43873 4 66 106
6110.05 17.0101 5.8155 51 117 166
6110.06 17.0101 3.51663 51 117 166
4217.97 10.9727 11.0246 48 100 136
4278.38 10.8793 11.3597 9 59 95
4431.55 11.2603 10.7652 76 130 163
4524.12 11.0528 11.4546 73 141 178
5135.29 12.2217 10.0899 8 67 113
5127.91 11.5495 11.6028 3 47 100
4488.67 10.0926 13.818 31 88 150
5113.69 11.239 12.3277 0 46 99
4534.02 9.93894 14.3528 49 123 179
4568.45 9.89316 14.5614 14 53 122
5606.27 11.9634 11.6484 0 49 109
6892.81 11.5045 14.0529 26 105 162
6415.05 10.5372 15.8365 23 70 108
6106.64 10.0021 16.9478 31 86 123
7293.55 11.6956 11.9612 64 135 179
7293.55 11.6956 11.9612 64 135 179
6498.48 10.0551 17.6747 0 38 73
6539.78 10.0428 17.803 29 119 160
9094.38 13.7526 9.08653 0 54 125
8838.2 13.1944 10.6231 47 130 181
8477.38 12.3269 13.0155 49 141 192
9314.65 13.4766 13.0366 120 167 199
9314.66 13.4767 9.18974 120 167 199
6232.47 8.98544 21.7755 7 78 145
6271.33 8.95974 21.933 51 141 196
8167.49 11.536 15.2796 0 66 145
8438.17 11.3827 15.7346 104 162 198
8320.73 11.1402 16.4809 106 167 207
7401.75 9.3303 22.1118 39 93 158
7355.78 9.08362 22.9919 1 51 93
7119.94 8.48391 25.0313 68 130 168
7444.1 8.61125 24.887 86 132 163
3145.66 19.3314 -1.40649 14 76 124
3469.09 19.3313 -1.04302 22 87 132
3625 19.4402 -0.932706 64 136 184
4791.8 18.9574 0.640022 55 123 170
3780.2 12.1285 7.74937 6 52 123
4133.93 11.0803 10.589 59 118 157
6003.64 16.0662 4.43996 15 51 89
6046.78 15.8537 4.70587 58 102 143
4053.17 10.5724 11.5342 61 115 146
4238.93 10.6465 11.8007 41 92 124
4305.37 10.7781 11.6486 39 90 123
5056.6 12.2103 9.95211 15 105 159
4866.85 11.6531 10.8034 2 57 108
4768.53 10.5624 13.1888 17 66 106
4560.6 10.0534 14.1057 0 38 102
6552.85 10.6449 15.7841 0 28 58
8411.05 13.4586 10.0553 16 77 143
8015.96 11.3495 15.7667 21 118 168
7892.2 10.7939 17.3751 28 98 157
8999.63 12.1106 13.0911 33 86 119
7855.97 10.5206 18.2968 20 93 153
7814.4 10.1954 19.4186 0 49 91
7622.03 9.32735 22.3865 58 111 148
7392.07 8.76254 24.2778 47 100 133
7392.07 8.76254 24.2778 47 100 133
7235.64 8.55323 24.9079 64 112 148
5653.48 5.87632 32.0602 16 67 110
5685.7 5.85411 32.3054 16 65 103
2407.84 10.2845 7.73029 47 126 169
4244.96 17.1608 1.51486 26 74 116
4825.56 18.6393 0.910884 31 90 139
3538.91 12.8172 6.0071 47 136 187
5880.14 20.9996 0.243612 61 116 159
5880.14 20.9996 0.243612 61 116 159
5279.34 18.291 1.62805 30 83 133
5320.11 16.7316 3.13763 70 119 159
4099.69 10.7837 11.1611 14 55 87
4183.68 10.564 11.8554 0 44 75
4074.75 10.1963 12.4759 8 52 83
7250.99 17.4836 3.63643 0 24 64
4661 10.6358 12.7496 0 46 82
6703.35 11.2973 14.3546 6 52 93
7196.01 11.9569 14.3894 0 27 51
6964.03 11.4787 14.1705 10 65 116
6890.37 11.0437 15.2649 22 101 158
8774.43 13.2951 10.4043 14 79 134
7834.89 10.9686 16.7663 14 105 156
8831.37 12.2178 13.0948 30 83 120
7718.86 10.6507 17.7333 10 43 112
8277.91 11.3746 15.7835 40 110 163
8173.56 11.1236 16.5241 32 88 147
8637.45 11.6989 14.7007 72 126 161
7274.61 8.74533 24.2028 45 99 134
8608.59 9.72742 20.1892 9 73 127
3075.27 22.0764 -3.00645 2 59 138
3697.34 15.3164 2.61542 6 44 116
2346.66 9.64114 8.95716 37 111 159
4392.14 17.2549 1.61912 67 128 168
6213.13 22.5404 -0.9826 29 80 136
5179.94 17.5044 2.22956 12 66 119
3974.61 10.9779 10.4616 5 48 81
4086.99 10.4547 11.8583 2 42 71
4656.5 9.85333 14.8755 15 102 158
4969.71 9.8913 15.4524 9 69 121
8448.2 12.4699 12.6471 10 84 138
8910.34 12.7487 11.6728 52 122 175
8597.29 12.0495 13.7618 51 112 174
7548.45 10.3391 18.6313 27 128 180
5590.68 5.92601 31.5372 17 65 107
5571.85 5.88825 31.6996 120 139 147
2703.14 13.9289 2.49325 40 125 171
5042.16 18.5234 1.21323 67 135 182
5042.16 18.5234 1.21323 67 135 182
4717.63 11.8713 9.98629 8 52 89
4854.46 9.90289 15.2192 20 106 158
7674.3 12.9977 10.7721 0 42 75
7144.29 10.4238 13.2671 1 27 74
7144.29 10.4238 13.2671 1 27 74
7144.29 10.4238 17.6602 1 27 74
7144.29 10.4238 17.6602 1 27 74
2646.42 13.3743 3.37216 37 122 170
3782.12 18.0999 0.150463 51 129 176
8039.31 12.2016 13.2669 25 117 170
2210.31 9.76107 7.85776 32 111 154
