ply
format ascii 1.0
comment written by Leonel Ocsa Sanchez
element vertex 1278
property float32 x
property float32 y
property float32 z
property uchar red
property uchar green
property uchar blue
end_header
0.324849 1.0511 0.0982609 43 55 61
0.889646 2.83426 -0.0125318 42 59 86
0.332432 1.05179 0.0968068 120 132 138
0.335589 1.05723 0.0962726 116 128 134
0.709497 2.24468 0.0316616 28 32 37
0.76181 2.39623 0.019679 79 84 93
0.737409 2.31623 0.0253424 87 92 101
0.414996 1.29793 0.0840542 64 75 83
0.420727 1.30614 0.0829918 46 56 66
0.898485 2.77613 -0.0160201 42 56 84
0.407934 1.25696 0.0849293 121 132 136
0.484165 1.48123 0.0722548 108 118 125
0.900722 2.74783 -0.0169948 42 55 81
0.946523 2.86734 -0.0349205 59 62 76
0.887978 2.68409 -0.0129465 101 119 148
0.947486 2.84154 -0.035486 57 61 72
0.315032 0.937474 0.0983616 95 111 118
0.9445 2.81814 -0.0490629 120 126 133
0.945806 2.82285 -0.0347901 120 126 133
0.403691 1.20027 0.084936 54 60 73
0.449256 1.33495 0.0775374 52 64 76
0.360522 1.06792 0.0915703 34 49 52
0.317571 0.939189 0.0979126 0 12 20
0.388188 1.14675 0.0872681 111 121 131
0.437999 1.29481 0.0793677 36 48 58
0.386022 1.13762 0.0875179 118 128 138
0.47211 1.39157 0.0735714 119 131 141
0.292814 0.859377 0.101339 53 61 68
0.282325 0.828863 0.102817 108 117 121
0.303092 0.888949 0.0998695 131 141 148
0.568113 1.67216 0.0567129 107 114 123
0.541984 1.59167 0.0613477 61 70 79
0.508294 1.49258 0.0673416 30 39 49
0.402078 1.17894 0.0849774 73 85 91
0.548022 1.60748 0.060282 26 37 45
0.517182 1.51361 0.0657187 122 132 142
0.30701 0.895821 0.0992396 120 135 138
0.409051 1.19199 0.0837636 42 53 57
0.290895 0.845863 0.101484 66 78 80
0.510046 1.48709 0.0669291 116 127 135
0.413695 1.20258 0.0829666 116 125 134
0.408606 1.18161 0.0836926 110 121 125
0.351981 1.01766 0.0924897 67 70 74
0.300744 0.867141 0.0999619 85 94 97
0.303654 0.873817 0.0995159 64 74 81
0.64062 1.8505 0.0427144 113 123 130
0.55157 1.59222 0.0593563 78 89 97
0.657749 1.89554 0.0392935 114 125 133
0.3408 0.977869 0.0940542 125 134 137
0.288169 0.822823 0.101637 77 88 92
0.670525 1.92226 0.0366026 73 83 90
0.407381 1.15949 0.0836034 90 99 109
0.399438 1.13652 0.084855 44 54 61
0.397627 1.13032 0.0851574 109 115 126
0.692493 1.97299 0.0322134 124 135 143
0.684692 1.95047 0.0337342 122 131 140
0.432751 1.22727 0.0794549 105 118 126
0.978 2.77914 -0.0538817 54 46 47
0.976588 2.76978 -0.0528972 136 131 130
0.417417 1.17975 0.081906 84 94 101
0.696476 1.96181 0.0311029 111 123 129
0.658932 1.85618 0.0385958 66 77 85
0.636857 1.78972 0.0427699 67 78 86
0.741811 2.08277 0.0219735 90 88 94
0.438017 1.22714 0.0784088 121 131 141
0.401503 1.1236 0.0842909 6 15 25
0.634245 1.77669 0.043268 58 67 76
0.388201 1.08306 0.0863071 91 101 111
0.386166 1.07636 0.0866224 102 115 123
0.904834 2.52271 -0.0206098 45 53 70
0.702728 1.95814 0.0295378 52 61 70
0.530086 1.47223 0.0624268 96 105 115
0.292678 0.810077 0.100575 115 124 128
0.875848 2.43301 -0.0111157 45 58 74
0.739452 2.05421 0.021819 72 78 85
0.542898 1.50615 0.0601175 129 135 140
0.345785 0.95694 0.0927465 85 92 101
0.332925 0.920828 0.0946805 74 88 94
0.820629 2.27557 0.00234873 28 26 32
0.297481 0.821197 0.0998834 126 138 142
0.361555 0.995492 0.0903145 119 126 135
0.726582 2.00384 0.0243028 50 60 67
0.351987 0.966119 0.0916883 100 107 116
0.295323 0.810846 0.100103 50 59 63
0.302218 0.828064 0.099077 144 148 153
0.904316 2.48853 -0.0207478 79 84 99
0.735763 2.02476 0.0223386 36 46 53
0.380023 1.04232 0.0873693 119 121 131
0.374606 1.02685 0.0881986 87 96 105
0.550215 1.51087 0.0586075 68 77 81
0.883833 2.41837 -0.0139947 168 170 180
0.363176 0.989725 0.089875 62 67 76
0.349882 0.952626 0.0918833 75 87 93
0.968539 2.63986 -0.0489494 69 73 74
0.900657 2.45346 -0.0193417 34 49 51
0.355453 0.961471 0.0909682 33 40 49
0.723402 1.96182 0.0245132 107 115 128
0.668493 1.81259 0.0358433 38 49 57
0.978968 2.6506 -0.0559627 49 51 51
0.70915 1.91983 0.0274895 105 111 122
0.875387 2.36524 -0.011631 125 135 142
0.974632 2.63113 -0.0529863 126 130 131
0.866509 2.33749 -0.00912553 57 66 76
0.722503 1.94884 0.0246008 28 38 48
0.37357 1.0032 0.0880375 69 78 87
0.988243 2.65684 -0.0639794 61 58 60
0.689435 1.85029 0.0313629 48 57 67
0.537352 1.44092 0.060457 114 124 134
0.628298 1.68465 0.0435313 26 37 41
0.850331 2.27231 -0.0059684 37 45 52
0.479019 1.27833 0.0706317 109 121 131
0.649579 1.7343 0.0393068 108 119 127
0.620791 1.6568 0.0449039 38 50 54
0.884094 2.35736 -0.0147915 47 51 56
0.400597 1.06536 0.0836199 90 100 110
0.646837 1.7207 0.0398049 107 119 125
0.515471 1.36699 0.0641846 34 42 59
0.367405 0.972277 0.0887943 103 112 121
0.336513 0.8901 0.0935265 58 71 79
0.338822 0.895144 0.0932186 95 106 114
0.8847 2.34294 -0.0152324 167 171 176
0.517937 1.37041 0.0637476 107 116 129
0.388065 1.02266 0.085505 31 40 44
0.595151 1.57011 0.0495499 121 131 138
0.369061 0.967636 0.0884142 107 115 122
0.427398 1.12059 0.078988 117 126 135
0.374761 0.980168 0.0874735 29 37 44
0.348512 0.911965 0.0915303 118 130 136
0.390741 1.02131 0.0849236 117 126 129
0.339662 0.885932 0.0928885 116 127 135
0.459784 1.20004 0.0736045 122 135 143
0.628087 1.6397 0.0429897 114 118 123
0.370647 0.958872 0.0879646 70 78 85
0.835858 2.16606 -0.00316289 79 82 87
0.563042 1.45759 0.0551121 58 66 73
0.354613 0.912786 0.090364 123 134 142
0.350765 0.900701 0.0909418 114 122 129
0.449445 1.15547 0.0750082 141 150 154
0.342053 0.876968 0.0922608 64 75 83
0.501215 1.2858 0.0660992 106 105 114
0.457607 1.17265 0.0735961 141 149 156
0.44807 1.14787 0.0751714 29 35 42
0.571698 1.45853 0.0532292 0 0 4
0.427362 1.08602 0.0785004 97 109 115
0.388348 0.985 0.0848879 13 14 18
0.335465 0.849384 0.0931421 138 141 145
0.771304 1.95746 0.0127472 71 71 77
0.321309 0.80708 0.0952021 71 74 79
0.633344 1.58941 0.0411492 121 124 129
0.48393 1.21157 0.0686732 14 26 36
0.398965 0.996366 0.0829094 13 16 21
0.493365 1.23279 0.0670116 43 52 65
0.49613 1.23557 0.0664806 103 113 123
0.624377 1.55492 0.0427157 63 72 81
0.469921 1.16705 0.0709677 42 48 55
0.480186 1.1831 0.0690587 116 128 138
0.489442 1.20475 0.0674505 109 118 128
0.325644 0.797782 0.0942364 111 122 126
0.325644 0.797782 0.0942364 111 122 126
0.688723 1.68978 0.0295632 38 42 53
0.780092 1.91014 0.00980089 65 69 74
0.322296 0.785129 0.0946766 109 118 122
0.693003 1.68892 0.0284255 125 126 136
0.979711 2.38279 -0.0599149 41 64 86
0.419909 1.01568 0.0789875 134 140 147
0.419374 1.01238 0.0790553 139 142 150
0.337279 0.811609 0.0922373 36 45 48
0.967466 2.33091 -0.0520255 64 56 63
0.333748 0.801805 0.0927483 121 133 135
0.324292 0.777776 0.0942038 51 48 57
0.737252 1.76884 0.0186412 22 23 27
0.629852 1.51133 0.0409341 63 75 81
0.337329 0.805128 0.092129 123 132 135
0.701782 1.65936 0.0258997 46 49 57
0.732087 1.73042 0.0193412 118 129 137
0.644857 1.5234 0.0376388 39 49 56
0.389063 0.916203 0.0836834 101 107 112
0.643861 1.51637 0.0377503 119 129 136
0.507687 1.19284 0.0633949 117 126 139
0.69387 1.6281 0.0274219 120 131 139
0.771558 1.79973 0.010167 69 81 85
0.441733 1.02675 0.0747257 102 113 121
0.389999 0.904539 0.0833531 110 121 129
0.346544 0.801238 0.0903042 111 123 125
0.747788 1.72086 0.0152432 103 107 112
0.783752 1.77769 0.00666145 126 127 131
0.775943 1.7614 0.00844891 48 58 65
0.746586 1.68716 0.015093 53 64 72
0.742515 1.6771 0.0160703 31 39 46
0.803479 1.80439 0.0018871 51 60 64
0.777282 1.74585 0.00789477 43 55 61
0.446388 1.00091 0.0734165 38 40 48
0.898433 2.00841 -0.0255956 36 37 35
0.402315 0.897902 0.0808221 67 77 87
0.905894 2.01291 -0.0284426 101 101 101
0.711711 1.58356 0.0224396 109 120 124
0.71459 1.58141 0.0216217 39 50 54
0.920249 2.03213 -0.0340821 47 45 45
0.916467 2.02309 -0.0326607 41 40 42
0.666318 1.47162 0.0318411 36 45 54
0.468774 1.03153 0.0692441 115 125 132
0.471385 1.03506 0.0687513 63 70 79
0.363161 0.796219 0.087036 116 125 129
0.530073 1.16419 0.0582059 48 60 70
0.35434 0.774749 0.0884173 29 38 42
0.409655 0.894824 0.0793144 124 133 142
0.928511 2.01909 -0.0380284 46 44 44
0.812582 1.76644 -0.00133939 64 67 71
0.475646 1.0291 0.0677601 117 129 131
0.623894 1.34721 0.0399745 93 97 102
0.528877 1.14113 0.0581591 44 49 52
0.370292 0.796216 0.0856649 103 108 109
0.76562 1.64743 0.00956311 38 49 57
0.36871 0.789739 0.0858579 54 63 66
0.542742 1.15888 0.0553714 117 126 136
0.534271 1.13654 0.0569905 40 43 47
0.822111 1.74425 -0.00424725 50 48 48
0.5393 1.14202 0.0559255 46 55 59
0.418892 0.884447 0.0773127 113 123 130
0.552747 1.16822 0.0533379 106 115 125
0.484423 1.01898 0.0658119 117 130 138
0.468503 0.984858 0.0686751 83 85 86
0.44892 0.943883 0.0721162 74 72 71
0.370167 0.774633 0.0853754 122 127 136
0.378984 0.792113 0.0839273 52 53 57
0.471685 0.984965 0.0679895 20 23 27
0.952324 1.9888 -0.049889 95 101 100
0.378246 0.78555 0.0839516 51 57 62
0.377193 0.78372 0.0841311 58 67 71
0.420164 0.870545 0.0768651 109 119 129
0.560043 1.16041 0.0516294 63 72 82
0.38189 0.78611 0.0832525 122 128 133
0.826133 1.68602 -0.00667387 121 123 123
0.484838 0.986018 0.0652603 113 118 127
0.496939 1.00911 0.0630498 41 52 60
0.484616 0.982257 0.0652563 51 53 61
0.739054 1.48695 0.0141364 40 45 44
0.427161 0.85781 0.0753257 128 125 134
0.389446 0.777786 0.081659 56 67 71
0.80957 1.60783 -0.0031428 103 105 105
0.437082 0.86516 0.0733792 63 70 79
0.78176 1.5457 0.00368929 43 45 46
0.779144 1.53587 0.00425276 42 44 44
0.495355 0.974033 0.0628661 121 128 131
0.77619 1.52372 0.00486431 41 43 43
0.787177 1.52817 0.00192496 62 65 70
0.784746 1.5233 0.00251286 117 120 125
0.455977 0.884192 0.0698 112 118 123
0.520581 1.00723 0.058011 60 69 73
0.720743 1.38426 0.0172027 80 85 86
0.504888 0.968057 0.0607801 120 123 127
0.511269 0.97681 0.0595369 72 79 88
0.769423 1.46992 0.00580774 57 59 60
0.594021 1.13015 0.0435892 89 96 99
0.445853 0.846619 0.071358 74 73 75
0.437259 0.829269 0.0728588 86 81 82
0.437259 0.829269 0.0728588 86 81 82
0.411361 0.7801 0.0773724 119 126 129
0.488168 0.920538 0.0636734 87 86 82
0.484846 0.914583 0.0642755 93 91 90
0.484846 0.914583 0.0642755 93 91 90
0.484846 0.914583 0.0642755 93 91 90
0.484846 0.914583 0.0642755 93 91 90
0.471918 0.866209 0.0662593 121 129 129
0.413773 0.75892 0.0765985 122 118 124
0.724037 1.32482 0.0153817 108 110 111
0.704791 1.28914 0.019809 102 103 101
0.697903 1.26963 0.0211956 114 114 114
0.429208 0.779388 0.0737895 89 96 99
0.477608 0.865814 0.0650745 38 50 50
0.425 0.769573 0.074498 102 108 113
0.431948 0.77567 0.0731951 116 125 128
0.656664 1.16821 0.0296753 106 104 103
0.656664 1.16821 0.0296753 106 104 103
0.609334 1.07356 0.0393538 89 88 90
0.542663 0.951699 0.0523978 67 72 75
0.431281 0.75314 0.0730188 106 109 113
0.490628 0.855986 0.0622037 47 54 57
0.562895 0.982458 0.0484737 22 27 26
0.488051 0.850715 0.0626644 68 76 76
0.461772 0.804604 0.0675159 97 98 96
0.493323 0.856602 0.0616592 97 106 109
0.654766 1.13449 0.0285051 137 138 136
0.534358 0.921386 0.053822 68 69 67
0.534358 0.921386 0.053822 68 69 67
0.439119 0.754675 0.0714644 106 104 110
0.514331 0.879287 0.0575308 28 34 29
0.43801 0.745922 0.0715645 94 102 102
0.750133 1.24683 0.00629613 121 121 121
0.752559 1.24366 0.00559146 43 45 45
0.603565 0.946847 0.0381256 129 134 133
0.605933 0.947901 0.0375803 51 57 56
0.0200595 2.45964 0.159084 236 247 251
0.0137822 1.20995 0.16017 68 51 60
0.0143725 1.0107 0.154061 69 79 89
0.0147859 1.03066 0.154531 20 24 42
0.0420729 1.90371 0.166102 133 139 152
0.0274462 1.11529 0.15464 140 142 150
0.0359708 1.30342 0.158406 239 237 249
0.0647606 2.19854 0.158067 16 29 45
0.0574066 1.87821 0.162361 119 127 134
0.0336356 1.05713 0.151954 83 94 102
0.063971 1.95815 0.160959 125 131 136
0.04053 1.09818 0.15182 34 45 49
0.0411983 1.07618 0.151091 127 136 145
0.0436294 1.09499 0.151186 127 138 142
0.0826844 2.1084 0.155542 35 40 55
0.0736022 1.87904 0.158987 122 131 140
0.100033 2.51155 0.143665 32 36 54
0.0786372 1.87127 0.157616 56 66 73
0.0834592 1.88238 0.156467 133 143 150
0.0930337 1.9691 0.154587 123 130 139
0.0472131 0.975254 0.147446 126 138 144
0.0434111 0.884547 0.145853 52 65 79
0.122704 2.51261 0.139359 22 26 45
0.0666924 1.3112 0.152607 233 242 251
0.107961 2.14907 0.149861 119 128 141
0.0556281 1.01 0.146899 121 130 139
0.0809295 1.43633 0.152129 132 138 143
0.0623337 1.1039 0.148038 42 48 53
0.0772947 1.31251 0.15057 101 120 133
0.0604364 1.01809 0.146229 115 127 131
0.114355 1.91907 0.150101 60 70 77
0.0818297 1.35341 0.150223 71 83 87
0.0715195 1.05864 0.145246 27 36 46
0.111943 1.64962 0.149032 48 60 64
0.0756377 1.07362 0.144868 109 122 130
0.0716981 1.01992 0.144343 23 32 41
0.133273 1.86109 0.146028 55 63 76
0.0741383 1.0092 0.143575 122 137 146
0.0735797 0.994917 0.14337 53 64 72
0.0923201 1.24078 0.145726 105 114 124
0.132203 1.74786 0.145744 29 38 48
0.121586 1.5717 0.146196 128 140 146
0.101112 1.25797 0.144445 46 55 59
0.0891313 1.09204 0.142895 118 126 133
0.0872435 1.05613 0.142612 255 242 255
0.101414 1.20977 0.143328 134 144 151
0.121776 1.42211 0.143667 120 124 135
0.110549 1.29494 0.143447 27 39 43
0.0988764 1.15468 0.142533 60 72 82
0.0714427 0.828855 0.139956 99 114 130
0.14995 1.72165 0.141905 47 53 64
0.107135 1.19863 0.142054 40 43 51
0.193823 2.18144 0.132566 132 139 142
0.161799 1.76557 0.139746 43 55 61
0.203728 2.18483 0.130495 68 72 77
0.220807 2.35879 0.125679 84 97 99
0.167635 1.77898 0.138664 129 141 147
0.228347 2.41577 0.123762 50 61 65
0.146598 1.5185 0.140281 124 136 142
0.212359 2.2091 0.128781 56 60 65
0.152255 1.55911 0.139705 45 57 63
0.20162 2.02493 0.132043 48 56 69
0.225686 2.23047 0.125857 115 116 126
0.108484 0.957311 0.136373 109 122 130
0.109694 0.939096 0.135744 38 57 65
0.154491 1.31963 0.135347 126 135 144
0.0994285 0.826102 0.135114 229 245 251
0.216009 1.80055 0.128929 31 42 46
0.14238 1.16621 0.134743 250 246 252
0.14238 1.16621 0.134743 250 246 252
0.102352 0.823899 0.134585 107 122 124
0.102352 0.823899 0.134585 107 122 124
0.107403 0.854751 0.134377 24 31 40
0.294515 2.35118 0.112987 17 29 39
0.106777 0.826771 0.133919 44 67 75
0.294569 2.31096 0.113382 9 21 33
0.1091 0.835305 0.133676 100 109 122
0.242718 1.85989 0.123859 114 124 134
0.238275 1.81822 0.12465 114 125 129
0.212499 1.57124 0.127783 111 120 133
0.255076 1.87135 0.121393 111 121 131
0.351317 2.54044 0.102163 125 136 144
0.212916 1.52703 0.127411 85 95 119
0.202522 1.33384 0.126391 111 121 131
0.294172 1.93291 0.114188 129 135 148
0.41273 2.70666 0.0914206 50 66 83
0.206583 1.33936 0.125674 19 28 38
0.236893 1.52517 0.122572 90 101 121
0.292325 1.87493 0.114193 67 79 85
0.229388 1.4401 0.123373 109 130 158
0.249959 1.56368 0.120259 43 57 69
0.268295 1.61893 0.1172 110 121 129
0.496943 2.93968 0.0778227 62 78 77
0.264017 1.53918 0.117409 84 97 113
0.268523 1.56354 0.11657 30 42 54
0.49943 2.91012 0.0775483 158 172 171
0.269532 1.54283 0.116236 14 27 43
0.448952 2.55854 0.0853128 134 145 149
0.335961 1.90179 0.10584 99 107 120
0.172155 0.965629 0.125266 97 106 119
0.24377 1.35123 0.118608 115 127 137
0.538572 2.97495 0.0696616 245 255 255
0.442108 2.41594 0.0866487 112 127 130
0.338476 1.83849 0.104984 112 121 134
0.266824 1.42797 0.11604 97 113 136
0.392046 2.10124 0.0956204 74 81 90
0.298729 1.59669 0.110978 110 120 130
0.30952 1.63285 0.109123 123 128 143
0.35805 1.87824 0.101353 53 61 78
0.405613 2.1134 0.0932146 127 136 145
0.292527 1.50765 0.111426 14 27 43
0.467101 2.38541 0.0820065 31 42 50
0.256028 1.29782 0.115524 54 66 76
0.262752 1.31862 0.114478 19 32 40
0.418073 2.05555 0.0904975 24 34 44
0.19461 0.929926 0.120555 11 26 35
0.275843 1.31656 0.111942 119 133 139
0.316309 1.50875 0.106664 7 17 35
0.454881 2.17463 0.0839583 94 102 109
0.397225 1.85541 0.0935283 116 124 141
0.538481 2.51027 0.0692288 13 22 26
0.298537 1.35826 0.108111 114 124 141
0.334759 1.51018 0.102994 20 30 40
0.496499 2.23883 0.0760475 97 101 112
0.333322 1.49361 0.103135 3 15 27
0.248775 1.10935 0.113738 52 64 70
0.291896 1.29005 0.108363 120 130 140
0.55328 2.45879 0.0656777 117 124 133
0.5767 2.46734 0.0617449 105 113 120
0.572002 2.44355 0.0622825 24 32 39
0.365444 1.54802 0.0971941 2 15 23
0.330643 1.38486 0.102929 10 20 38
0.221896 0.916935 0.115344 40 46 57
0.437892 1.82046 0.0853039 125 131 144
0.20488 0.840319 0.117073 124 135 143
0.455613 1.876 0.0824848 74 86 98
0.207378 0.84632 0.116749 102 108 119
0.411572 1.67443 0.0895054 77 84 93
0.209262 0.844738 0.116399 29 33 44
0.593585 2.41591 0.0579476 106 116 123
0.362928 1.46799 0.0969408 90 99 113
0.273901 1.103 0.108854 129 138 147
0.202033 0.811049 0.11704 53 61 74
0.381615 1.52384 0.0937018 52 63 71
0.327921 1.30495 0.10151 29 41 51
0.47839 1.89817 0.0778513 21 33 45
0.212541 0.834282 0.115584 87 98 112
0.500224 1.97163 0.0737885 60 70 77
0.507717 1.9749 0.0723416 125 134 144
0.465768 1.79419 0.0793595 122 131 141
0.350914 1.34252 0.0974911 127 127 139
0.712273 2.70487 0.0345738 128 148 149
0.303541 1.13021 0.103623 4 10 15
0.349047 1.28977 0.0971281 57 68 76
0.314029 1.14305 0.101776 80 82 92
0.366518 1.33358 0.0942967 123 131 138
0.857584 3.10366 -4.37846e-06 228 239 253
0.491807 1.77031 0.0738444 116 122 133
0.31511 1.1193 0.101181 117 128 136
0.300827 1.05875 0.103001 29 39 46
0.377653 1.32883 0.0920035 122 131 140
0.315629 1.09625 0.100746 37 46 50
0.312098 1.0823 0.101212 16 25 29
0.375606 1.30271 0.0920506 64 75 79
0.913079 3.17424 -0.0183435 72 93 108
0.273617 0.943679 0.106223 114 123 127
0.585816 1.98924 0.0563585 6 17 25
0.635265 2.15657 0.0469205 120 131 135
0.620671 2.05546 0.0492834 56 63 72
0.925272 3.05846 -0.0241813 61 74 82
0.662278 2.18885 0.04143 64 75 79
0.460671 1.49618 0.0772376 105 114 117
0.534834 1.72869 0.0643638 40 48 55
0.423481 1.36585 0.0832279 48 60 70
0.935388 3.00806 -0.0286992 59 69 79
0.906469 2.91339 -0.0179798 120 126 139
0.818676 2.62815 0.00856222 40 50 60
0.290718 0.918642 0.102653 123 134 138
0.761429 2.41861 0.0199102 37 39 47
0.274355 0.863219 0.104845 100 109 119
0.35175 1.10596 0.0938852 116 127 135
0.2772 0.863866 0.104316 58 67 76
0.599597 1.87786 0.0520764 61 70 74
0.467418 1.45237 0.0753664 44 53 62
0.409225 1.26585 0.0847562 111 122 130
0.469338 1.44536 0.0749172 108 117 127
0.641344 1.94306 0.0435956 52 63 71
0.385169 1.14749 0.0878891 43 58 67
0.648278 1.92852 0.0417576 49 60 68
0.503184 1.49487 0.0684198 98 107 120
0.398486 1.17475 0.0856415 141 152 160
0.363262 1.0704 0.0910818 105 119 125
0.686657 2.02726 0.0342583 120 129 139
0.496835 1.46264 0.0693347 50 64 70
0.320569 0.941242 0.0973597 113 124 132
0.43134 1.26172 0.0802505 118 130 136
0.401082 1.1602 0.0736929 69 81 87
0.623899 1.82631 0.0462716 120 127 136
0.562749 1.64329 0.0575197 68 78 88
0.420893 1.22741 0.0818937 104 116 128
0.287234 0.835158 0.101987 64 73 77
0.551451 1.60161 0.0594932 108 120 130
0.967853 2.8081 -0.0467666 59 64 67
0.628336 1.81873 0.0451571 34 43 52
0.608515 1.75758 0.0488803 134 146 152
0.575484 1.66115 0.0549821 120 131 139
0.892851 2.55851 -0.0158681 95 116 137
0.631058 1.80754 0.0443849 106 115 124
0.414074 1.18317 0.0826249 39 51 57
0.869996 2.48561 -0.0086732 108 128 153
0.950639 2.71164 -0.0383015 130 142 146
0.58809 1.67728 0.0523804 121 128 137
0.786656 2.24201 0.0118637 86 88 98
0.597151 1.69032 0.0505949 125 133 140
0.475543 1.34494 0.0722807 39 52 68
0.371672 1.04836 0.0890979 38 50 56
0.367465 1.0365 0.0897295 128 138 145
0.558046 1.57717 0.0576877 118 127 136
0.480892 1.35846 0.0713052 86 96 113
0.449311 1.26767 0.0766192 63 75 81
0.955257 2.6931 -0.0408411 74 83 86
0.350267 0.983513 0.0923235 29 37 44
0.930299 2.61263 -0.0299368 110 118 125
0.589371 1.64898 0.0517347 20 26 33
0.563644 1.57687 0.0565302 20 30 37
0.527275 1.47617 0.0630839 12 21 31
0.394617 1.10199 0.0852852 71 82 90
0.315165 0.878867 0.0974344 38 48 55
0.3487 0.969177 0.0923819 96 104 111
0.639594 1.78242 0.0420987 117 126 136
0.340786 0.945743 0.0935445 94 106 112
0.671552 1.86792 0.0358036 18 28 38
0.66261 1.84214 0.0376291 14 23 33
0.645883 1.7965 0.0409057 16 24 37
0.28201 0.779586 0.102098 55 65 75
0.343822 0.951316 0.0930559 102 112 119
0.606477 1.67531 0.0483296 26 35 39
0.294268 0.808143 0.100259 54 60 65
0.812595 2.24155 0.00448245 123 126 131
0.292907 0.803806 0.100419 48 59 63
0.979039 2.69346 -0.0554094 50 48 48
0.309048 0.845065 0.0980716 127 136 140
0.326933 0.889722 0.0953455 56 64 71
0.291276 0.791471 0.100556 105 112 121
0.795319 2.17108 0.00880768 61 67 72
0.58436 1.59058 0.0521318 64 76 82
0.71048 1.93124 0.0272643 25 34 44
0.881422 2.38831 -0.0134467 42 48 55
0.934736 2.52526 -0.0329113 49 57 57
0.657109 1.76807 0.0379665 45 53 66
0.981929 2.6393 -0.0585784 52 58 57
0.963737 2.5884 -0.0467267 55 59 60
0.886062 2.38012 -0.0154063 105 108 113
0.520575 1.3968 0.0634305 102 112 122
0.366228 0.979994 0.089111 119 131 135
0.640516 1.71754 0.0411261 30 41 49
0.606406 1.62556 0.0477103 39 50 58
0.934697 2.5008 -0.0331212 137 147 147
0.583856 1.56253 0.051935 36 46 53
0.911007 2.43556 -0.0239038 106 100 105
0.533972 1.42674 0.0609761 71 80 90
0.873352 2.31995 -0.011531 65 73 80
0.755327 2.00656 0.0174654 114 118 123
0.308115 0.812231 0.0977375 106 112 117
0.482576 1.27432 0.0698507 12 24 34
0.300897 0.792131 0.0987678 115 124 134
0.303816 0.79885 0.0983387 104 115 123
0.497545 1.3096 0.067216 108 120 132
0.881675 2.31695 -0.0144818 33 41 48
0.571683 1.49616 0.0537855 122 125 130
0.353558 0.921357 0.0907456 112 122 132
0.339853 0.883577 0.0928013 21 32 40
0.468533 1.22034 0.0719904 113 124 128
0.543906 1.4137 0.0587005 43 55 65
0.327655 0.848546 0.0946152 59 70 74
0.603081 1.56421 0.047575 75 84 93
0.495838 1.27982 0.0671465 116 123 132
0.344179 0.886544 0.092001 70 83 91
0.54691 1.40814 0.0579648 100 110 120
0.315697 0.809423 0.0962765 65 65 71
0.380138 0.974957 0.0863485 88 91 99
0.316645 0.811374 0.0961303 132 132 138
0.653262 1.67687 0.0377198 108 123 126
0.459773 1.1783 0.0732152 24 35 39
0.426823 1.09303 0.0787082 109 118 127
0.373517 0.956531 0.0873561 121 129 136
0.315435 0.806572 0.0962839 129 132 137
0.66179 1.69693 0.0359314 43 55 59
0.462091 1.18151 0.0727738 119 129 136
0.550329 1.40272 0.0571833 9 19 29
0.330734 0.839905 0.0938967 93 96 101
0.544101 1.38535 0.0583256 22 31 40
0.557776 1.41637 0.0557239 118 128 138
0.337305 0.852597 0.0928199 136 135 144
0.555724 1.40614 0.0560515 88 98 108
0.37157 0.937735 0.0874772 114 126 132
0.624158 1.57826 0.0431467 50 60 67
0.543229 1.3707 0.058326 13 22 31
0.461619 1.16325 0.0726351 84 92 99
0.320081 0.80108 0.0953285 123 132 136
0.421292 1.05516 0.0793356 46 57 65
0.353428 0.884377 0.0901939 120 132 136
0.547462 1.37163 0.0573781 111 121 128
0.688505 1.70067 0.0298471 117 119 130
0.407222 1.0031 0.0813481 135 138 143
0.491837 1.2076 0.0669759 50 60 70
0.425523 1.04057 0.0782373 40 47 56
0.411983 1.0052 0.0804342 116 118 126
0.947904 2.31102 -0.0414025 31 73 96
0.32431 0.77412 0.0941342 116 109 122
0.64086 1.53379 0.038658 119 128 137
-0.981421 -2.34124 0.0617864 124 133 147
0.703077 1.67533 0.0259898 22 22 28
0.959811 2.28594 -0.0481101 110 112 123
-0.98305 -2.3369 0.0635507 34 47 63
0.568938 1.35248 0.0523871 22 36 42
0.518351 1.22528 0.0616031 105 111 116
0.330969 0.779791 0.092943 95 98 103
0.516762 1.2198 0.061856 11 19 26
0.570629 1.34569 0.0519283 108 119 127
0.442143 1.03196 0.0747048 120 131 139
0.440938 1.02083 0.074794 118 127 136
0.621049 1.43367 0.0419181 78 76 76
0.931282 2.13413 -0.0365315 71 80 84
0.339833 0.775742 0.0912131 143 135 142
0.582198 1.32692 0.0491152 53 58 67
0.934677 2.12768 -0.0381615 35 43 50
0.708087 1.6087 0.0236899 16 30 36
0.34169 0.773841 0.090822 26 13 21
0.518902 1.15016 0.0604029 117 123 130
0.409594 0.906105 0.07953 20 29 33
0.807864 1.78583 0.000372806 31 35 40
0.548247 1.20094 0.0547827 128 133 136
0.885919 1.9396 -0.021875 38 43 42
0.403622 0.880953 0.0803175 53 62 71
0.928863 2.00726 -0.0384048 134 134 134
0.419347 0.899451 0.0774509 98 108 115
0.374097 0.796075 0.084929 18 23 24
0.408915 0.865889 0.0790617 97 94 103
0.372343 0.787083 0.0851289 122 128 133
0.480266 1.01319 0.0666024 108 119 127
0.426194 0.892674 0.0759685 22 31 35
0.375791 0.785702 0.0844326 115 119 124
0.794984 1.66466 0.00201832 47 46 48
0.549018 1.14806 0.0538884 64 75 83
0.822672 1.71392 -0.00500268 56 60 61
0.379157 0.781301 0.083736 120 126 131
0.694747 1.43231 0.0244259 57 70 72
0.809443 1.66492 -0.00236745 119 124 123
0.432333 0.886895 0.0746611 105 117 123
0.383504 0.78479 0.0829087 33 39 44
0.481827 0.985258 0.0658723 48 51 59
0.377756 0.766172 0.0837851 86 93 96
0.741693 1.50606 0.0136775 128 138 138
0.388789 0.784924 0.0819075 31 36 45
0.719639 1.4516 0.0186167 156 151 148
0.432282 0.869095 0.0743994 122 131 135
0.447836 0.887482 0.0715453 103 105 116
0.748172 1.47978 0.0116405 57 64 67
0.795178 1.56463 0.000277055 56 55 59
0.793632 1.55736 0.00059901 113 111 117
0.782326 1.53558 0.00333819 142 143 147
0.644941 1.25905 0.0338176 47 53 60
0.402871 0.783224 0.0790817 118 117 121
0.440456 0.853634 0.0725298 110 113 121
0.778013 1.4939 0.00384893 49 54 53
0.447649 0.856008 0.0711019 43 50 53
0.775678 1.48348 0.00433125 119 124 123
0.756656 1.44075 0.00882495 37 42 41
0.416374 0.783098 0.0764375 110 120 120
0.746814 1.40158 0.0107836 115 115 115
0.740701 1.38489 0.0120863 132 134 135
0.409564 0.761594 0.0774771 48 49 53
0.612177 1.13622 0.0395871 125 133 133
0.410979 0.759719 0.0771716 130 128 134
0.753064 1.38385 0.00860532 66 71 70
0.428516 0.772371 0.0738275 33 36 41
0.53065 0.952383 0.0550584 127 128 132
0.428886 0.765977 0.0736621 23 33 40
0.426076 0.758758 0.0741344 106 110 115
0.58949 1.01984 0.0430551 90 92 92
0.431884 0.737634 0.0726992 118 121 119
0.489563 0.831764 0.0621048 105 109 110
0.607534 0.945782 0.0371635 145 150 149
0.613309 0.947839 0.0357536 74 77 75
0.616556 0.948173 0.0349696 128 130 130
0.608239 0.926825 0.036623 138 143 144
0.613532 0.934379 0.0354968 134 134 134
0.615603 0.931522 0.0349295 58 60 61
0.0227988 2.00956 0.170427 229 244 253
0.0303565 2.47029 0.15683 58 73 75
0.0279707 1.15307 0.155601 80 89 93
0.0594473 1.6655 0.160557 121 133 135
0.0380495 1.06593 0.151376 51 61 68
0.0706955 1.95056 0.159485 63 72 76
0.0647153 1.69508 0.159728 121 130 139
0.0664255 1.43219 0.155023 50 56 63
0.0571582 1.01458 0.146728 43 54 58
0.0607973 0.954574 0.144623 120 129 139
0.0698435 1.01518 0.144485 115 129 135
0.117542 1.69724 0.148439 25 34 44
0.111931 1.48707 0.146836 84 91 100
0.0779173 1.00368 0.142795 119 135 141
0.131479 1.63507 0.144842 22 34 38
0.193198 2.39735 0.13004 129 137 150
0.15292 1.75837 0.141462 124 131 140
0.175274 1.95985 0.137304 123 132 141
0.21627 2.40293 0.125988 115 125 132
0.182242 1.9465 0.135999 49 59 69
0.0908928 0.961368 0.13951 52 58 69
0.0809873 0.834186 0.138388 56 63 78
0.233971 2.44537 0.122342 128 136 143
0.128152 1.30399 0.140254 121 132 140
0.163476 1.64479 0.138424 119 133 139
0.11856 1.15512 0.138927 57 67 77
0.178542 1.63962 0.135394 114 125 133
0.216923 1.97294 0.12913 36 46 53
0.237717 2.12611 0.124671 129 140 144
0.183948 1.62955 0.13412 20 30 40
0.180075 1.56494 0.134162 119 128 137
0.220178 1.8792 0.128462 31 42 50
0.242463 2.06087 0.124018 70 81 85
0.214127 1.6915 0.128602 97 107 117
0.276342 2.09238 0.117467 73 84 92
0.250972 1.85806 0.122213 29 39 49
0.335296 2.26446 0.106332 15 27 37
0.238412 1.5683 0.12248 45 60 76
0.157432 0.986509 0.128821 73 77 88
0.227551 1.41687 0.123736 32 46 74
0.263751 1.55318 0.117449 98 111 125
0.284313 1.64228 0.11423 127 134 149
0.169656 0.948309 0.125355 105 114 127
0.19913 1.09395 0.122746 113 116 130
0.212843 1.12308 0.120706 106 118 128
0.425487 2.26114 0.0895892 114 127 135
0.217312 1.1262 0.119978 5 18 26
0.624694 2.86411 0.053626 72 93 95
0.635178 2.86798 0.051915 235 254 255
0.463204 2.06704 0.0824591 23 28 43
0.470135 2.0809 0.0807423 87 93 106
0.194574 0.853385 0.119253 37 46 56
0.200512 0.868098 0.118474 96 102 115
0.551603 2.34742 0.066045 15 21 32
0.269776 1.10245 0.109619 19 31 37
0.539685 2.20257 0.0677215 20 29 42
0.506906 2.05595 0.0732886 37 46 59
0.537059 2.17895 0.0678201 128 137 147
0.319343 1.28229 0.102896 53 63 70
0.276483 1.11005 0.108519 127 139 145
0.595511 2.39165 0.0574953 37 47 54
0.35485 1.39845 0.0976915 22 26 37
0.277061 1.08811 0.108013 91 102 106
0.2897 1.12902 0.10623 110 116 121
0.29198 1.0984 0.105321 10 20 27
0.34486 1.29385 0.0979916 111 121 131
0.815383 2.917 0.0113073 218 231 245
0.266503 0.932703 0.107411 126 135 139
0.319852 1.11871 0.100217 67 77 84
0.267969 0.936291 0.107171 122 131 135
0.623029 2.18142 0.0498987 126 134 141
0.486843 1.68674 0.0739797 61 70 79
0.56475 1.92747 0.0601399 109 115 122
0.523698 1.7848 0.0674155 18 24 35
0.564496 1.90505 0.0599549 81 87 92
0.525091 1.76967 0.066907 84 88 99
0.373961 1.25325 0.0916682 110 120 127
0.271208 0.90659 0.106074 109 115 120
0.386416 1.2921 0.0896877 51 63 65
0.451803 1.47169 0.0787967 37 47 54
0.326193 1.05479 0.0980413 116 128 134
0.675809 2.18328 0.038369 118 129 133
0.675809 2.18328 0.038369 118 129 133
0.344072 1.10227 0.0953262 45 56 64
0.399985 1.26963 0.0866308 99 110 118
0.404672 1.26192 0.0856536 4 15 23
0.542393 1.67076 0.0621868 10 22 28
0.653287 1.98225 0.0413221 108 113 122
0.959933 2.89313 -0.0414098 120 119 128
0.412807 1.23367 0.0835891 112 124 136
0.652464 1.9386 0.0410274 109 119 126
0.519165 1.53355 0.0654678 59 68 78
0.391435 1.15504 0.086685 120 129 138
0.456051 1.34468 0.076323 126 138 150
0.42029 1.23332 0.082088 15 27 39
0.295205 0.862614 0.100939 121 127 132
0.42722 1.24955 0.0808977 105 116 124
0.571806 1.66699 0.0558466 24 34 41
0.31144 0.899497 0.0984505 110 120 127
0.933296 2.65553 -0.0308202 56 62 69
0.368724 1.04286 0.0895868 124 132 139
0.640992 1.81609 0.0422618 97 107 117
0.375825 1.06129 0.0884728 22 34 40
0.512324 1.44637 0.0658859 54 66 76
0.38142 1.07431 0.0875546 73 85 91
0.371528 1.03962 0.0890054 24 32 39
0.473419 1.32388 0.0724197 1 13 25
0.379853 1.05887 0.0876218 124 136 142
0.900428 2.50755 -0.0190356 93 115 127
0.581598 1.61972 0.0531661 117 127 137
0.324691 0.900027 0.0959196 135 143 150
0.302679 0.837263 0.0991617 39 48 51
0.299552 0.82892 0.0996017 17 20 25
0.47915 1.32728 0.071226 80 93 107
0.911889 2.51473 -0.0236474 37 39 49
0.388402 1.06719 0.0860141 124 134 144
0.369756 1.01219 0.088958 44 54 61
0.327324 0.893615 0.0953532 115 122 131
0.297419 0.808288 0.0996587 107 111 116
0.801653 2.18846 0.00715441 28 36 43
0.980546 2.66345 -0.0570677 113 118 117
0.970825 2.63121 -0.0505813 108 113 114
0.585847 1.57447 0.05173 111 121 128
0.717961 1.92611 0.0254358 105 116 124
0.369523 0.974636 0.0884431 43 52 61
0.547667 1.4468 0.0583729 111 123 129
0.456145 1.20168 0.0743118 9 19 29
0.348853 0.91545 0.0915376 6 18 24
0.685432 1.80177 0.0317289 117 126 130
0.373292 0.976869 0.0877156 102 109 118
0.74914 1.94004 0.0180795 15 18 26
0.729578 1.89186 0.0222565 108 120 124
0.342943 0.88117 0.0921598 118 128 138
0.698152 1.79876 0.0286358 104 116 122
0.38727 0.991603 0.0851678 110 116 123
0.552307 1.41145 0.0568626 17 27 37
0.606671 1.53711 0.0465082 122 133 137
0.610289 1.54464 0.0458037 46 58 64
0.409017 1.02691 0.0813544 21 32 40
0.485977 1.20715 0.0682007 108 119 127
0.424128 1.05152 0.0787244 126 138 144
0.329966 0.81101 0.0936027 122 134 138
0.481894 1.17753 0.0686242 19 30 38
0.420724 1.02294 0.0762873 40 50 60
0.41894 1.02235 0.0793035 40 50 60
0.371189 0.901681 0.0870478 125 134 138
0.636805 1.53935 0.0397023 19 28 37
-0.979668 -2.34412 0.0603996 52 68 67
0.504101 1.19282 0.0641662 15 24 37
0.379385 0.885767 0.085165 101 110 119
0.343825 0.801929 0.0908453 102 114 116
0.447201 1.03878 0.0738175 115 124 133
0.929856 2.16083 -0.0354242 92 97 100
0.653009 1.50455 0.0354599 12 21 30
0.53287 1.22005 0.0585109 17 18 22
0.582672 1.31945 0.0489544 100 103 108
0.933105 2.1086 -0.0378564 97 107 107
0.746675 1.67551 0.0149607 96 104 111
0.45582 1.015 0.0716701 111 121 131
0.467566 1.03923 0.0696111 29 34 43
0.542995 1.20358 0.0559688 121 130 134
0.472937 1.04236 0.068525 118 125 134
0.362366 0.793633 0.0871589 9 21 23
0.466348 1.01375 0.0694657 114 124 134
0.539615 1.16287 0.056146 50 59 69
0.463664 0.998231 0.0698332 110 113 121
0.769597 1.6523 0.00848972 102 105 113
0.374997 0.791721 0.0847026 96 101 104
0.952122 1.97599 -0.0500602 139 145 144
0.376617 0.776595 0.0841461 117 127 134
0.477913 0.984977 0.0666904 110 114 119
0.386218 0.791524 0.0824648 31 34 38
0.384729 0.786652 0.0827037 21 27 34
0.435681 0.888199 0.0739895 34 47 55
0.441396 0.851066 0.0723197 29 30 34
0.398292 0.762777 0.0797286 107 110 115
0.409048 0.764158 0.0776036 124 129 132
0.516376 0.961892 0.058249 118 123 124
0.458974 0.851571 0.0687276 80 84 89
0.675895 1.25077 0.0263051 70 79 82
0.433931 0.774764 0.0727742 33 37 42
0.43931 0.769849 0.071618 37 37 43
0.510091 0.865822 0.0582471 97 100 98
0.709431 1.14739 0.0153484 119 121 121
0.575527 0.863133 0.0431639 44 52 51
0.0299097 1.17305 0.155763 106 104 110
0.0304904 1.02959 0.151773 92 102 109
0.0663644 1.66227 0.158984 59 70 74
0.0490255 1.17389 0.152203 118 121 126
0.0597056 1.17377 0.150212 104 107 112
0.0530125 0.983054 0.146651 55 64 73
0.128187 2.21307 0.144875 130 132 143
0.0752021 1.2217 0.14849 101 113 115
0.0786865 1.23429 0.148207 71 83 87
0.0848997 1.30819 0.148746 222 232 242
0.109563 1.62961 0.149333 35 47 53
0.0979442 1.24494 0.144782 30 39 49
0.099972 1.2277 0.143992 109 119 126
0.0838999 0.976033 0.141112 124 128 139
0.169637 1.89199 0.138481 73 85 91
0.251954 2.79838 0.114561 27 33 56
0.112154 1.15064 0.14003 118 127 137
0.183371 1.85225 0.135696 34 45 53
0.293991 2.44067 0.112135 100 108 115
0.304077 2.37347 0.111173 124 131 140
0.223021 1.6758 0.126657 110 122 134
0.372885 2.67327 0.097943 118 126 139
0.29304 2.09175 0.114282 72 82 89
0.448544 2.97552 0.0855463 60 76 83
0.243376 1.54972 0.121469 94 107 123
0.325427 2.07054 0.108158 118 130 136
0.372812 2.23061 0.0992416 120 132 134
0.16976 0.968816 0.125755 21 33 45
0.332889 1.82763 0.105972 48 56 69
0.487666 2.67963 0.0802073 117 135 158
0.341116 1.84017 0.104462 109 118 131
0.494024 2.59394 0.0775188 113 121 128
0.46253 2.41152 0.0826403 101 110 119
0.416037 2.03048 0.0908611 115 127 137
0.338073 1.4833 0.102084 94 105 119
0.648145 2.76585 0.0484885 117 125 132
0.204284 0.842806 0.117194 110 120 130
0.201366 0.802485 0.117011 50 58 71
0.370469 1.45953 0.0954353 22 30 43
0.69859 2.72741 0.0357414 133 144 152
0.698463 2.72704 0.0378702 133 144 152
0.618941 2.31215 0.0519522 114 120 131
0.541028 1.94947 0.0651271 129 135 142
0.855346 3.06174 0.000428301 72 86 104
0.825766 2.94737 0.00853133 93 106 128
0.268812 0.94272 0.107107 122 130 137
0.61872 2.18643 0.0509489 121 129 136
0.265165 0.926999 0.107564 113 123 130
0.556174 1.94591 0.0620341 31 37 44
0.312701 1.08963 0.101214 118 124 131
0.490035 1.70318 0.0735401 112 123 131
0.272488 0.938109 0.106347 46 55 58
0.278652 0.942112 0.105278 56 60 65
0.706615 2.3596 0.0335157 78 84 89
0.663433 2.21025 0.0416161 120 131 135
0.463957 1.53656 0.0770824 44 53 57
0.463957 1.53656 0.0770824 44 53 57
0.589724 1.85743 0.0540307 57 66 69
0.711728 2.20106 0.030602 43 46 54
0.643635 1.98764 0.043443 44 53 57
0.605155 1.86615 0.0507798 101 112 116
0.94927 2.85625 -0.0363277 73 76 90
0.967951 2.85233 -0.0465802 130 132 133
0.407722 1.19808 0.0841163 107 117 124
0.605312 1.77017 0.0497304 43 53 63
0.369655 1.07076 0.0898115 120 132 138
0.399583 1.15131 0.0850838 106 120 126
0.624591 1.783 0.0455926 117 128 132
0.396359 1.12918 0.0853947 104 110 121
0.395434 1.11931 0.085447 43 54 62
0.603757 1.70525 0.0492778 113 120 129
0.335718 0.94255 0.0944893 28 37 46
0.388908 1.08815 0.0862747 11 22 30
0.341905 0.956211 0.0934868 7 15 22
0.339814 0.950223 0.0938444 14 24 31
0.612435 1.70948 0.0474152 7 17 24
0.931308 2.56351 -0.0308659 126 136 136
0.352864 0.966897 0.0915347 88 97 106
0.295017 0.800579 0.100012 112 120 127
0.85374 2.28838 -0.00690821 110 116 127
0.681045 1.81992 0.0330613 114 125 133
0.458026 1.22057 0.0741441 108 118 125
0.345037 0.91876 0.0923321 99 111 117
0.67636 1.80452 0.0338584 49 59 66
0.525763 1.39556 0.0623921 16 25 35
0.540888 1.43046 0.0596404 106 116 126
0.487393 1.28794 0.0690153 58 68 78
0.404126 1.0653 0.0829142 6 16 26
0.371336 0.971932 0.0880414 44 51 60
0.307307 0.802046 0.0977335 45 56 60
0.567054 1.47956 0.0545361 140 141 145
0.401479 1.0398 0.0830706 107 116 126
0.39383 1.00396 0.0840544 32 40 47
0.748451 1.90204 0.0174999 98 100 108
0.743345 1.86907 0.0184179 102 116 122
0.36486 0.913573 0.0884049 62 74 84
0.484601 1.21443 0.0685854 19 31 41
0.743256 1.84785 0.0182998 31 42 46
0.375325 0.930776 0.086636 109 119 129
0.333867 0.80963 0.0928447 29 41 45
0.623587 1.51524 0.0423792 111 123 129
0.733045 1.76319 0.0196639 97 99 109
0.335828 0.799276 0.0923185 101 110 113
0.38177 0.890032 0.0847523 22 33 37
0.77608 1.80191 0.00909746 126 129 133
0.801192 1.83986 0.00313375 93 96 101
0.751931 1.69852 0.0138642 102 112 119
0.513834 1.15157 0.0615339 48 48 54
0.348882 0.775468 0.0894882 109 112 117
0.352126 0.772986 0.0888278 34 33 37
0.542005 1.18612 0.055929 110 122 128
0.458898 1.00394 0.0708898 90 96 107
0.716231 1.56611 0.0210332 96 104 111
0.479374 1.03422 0.067091 102 111 115
0.414194 0.894183 0.0784012 73 86 94
0.807393 1.73393 -0.000510118 25 36 34
0.482561 1.03145 0.0664193 102 109 112
0.927372 1.97617 -0.038092 63 63 63
0.473158 0.989013 0.0677521 102 110 117
0.389712 0.787812 0.0817466 112 114 122
0.397209 0.780088 0.0801617 112 118 123
0.774449 1.50222 0.00498386 117 122 125
0.646177 1.2484 0.0333416 118 126 133
0.618712 1.12772 0.0379406 129 134 133
0.672635 1.22182 0.026666 47 52 55
0.46311 0.805114 0.0672575 75 76 74
0.619894 0.945571 0.0341288 55 63 62
0.0938457 1.86573 0.154592 55 64 74
0.0658203 1.18239 0.149391 239 235 240
0.0722393 1.18914 0.148311 110 118 125
0.064158 1.03944 0.146075 126 139 141
0.121019 1.63952 0.147065 122 134 138
0.116537 1.18518 0.139815 58 50 61
0.206264 2.04696 0.130989 71 77 88
0.16694 1.43461 0.135894 50 66 79
0.21741 1.85606 0.128745 116 125 134
0.260733 2.10581 0.120462 53 64 72
0.149968 1.16519 0.133335 102 102 108
0.128273 0.952563 0.132825 36 48 60
0.406559 3.01334 0.0917801 61 87 93
0.391104 2.99616 0.0187832 61 87 93
0.160101 1.16615 0.131448 243 239 245
0.447118 3.02969 0.085383 233 241 240
0.295481 1.92358 0.113755 113 119 132
0.188534 1.09752 0.124766 109 118 131
0.319088 1.79543 0.108691 23 26 40
0.242313 1.11727 0.115106 20 26 37
0.56869 2.50637 0.0636314 126 126 132
0.508289 1.98916 0.0722404 112 121 130
0.287382 1.11533 0.106471 47 59 65
0.277561 1.08024 0.107755 57 67 74
0.586637 2.25062 0.0583699 118 127 137
0.535951 1.97095 0.0665277 35 40 49
0.423953 1.52592 0.0851174 102 116 122
0.837332 2.99406 0.00544429 84 98 116
0.266119 0.912715 0.107118 64 69 72
0.808567 2.68658 0.0113728 48 60 66
0.473194 1.52991 0.0750028 101 112 116
0.28901 0.922741 0.103047 9 20 24
0.388498 1.16223 0.0874277 62 72 82
0.437332 1.29858 0.0794398 58 68 78
0.727677 2.10834 0.0255734 117 120 128
0.287051 0.818033 0.101726 108 120 124
0.349459 0.994918 0.092616 110 118 125
0.330758 0.927095 0.0952001 112 123 131
0.368098 1.02862 0.0895191 8 18 25
0.948537 2.64667 -0.0379931 59 66 69
0.603329 1.68266 0.049119 29 35 40
0.586805 1.63817 0.0521765 121 128 137
0.335507 0.933221 0.094396 11 21 31
0.452124 1.25768 0.0759192 120 132 142
0.813775 2.26135 0.00431364 117 120 125
0.58966 1.61885 0.051339 74 83 93
0.913489 2.4688 -0.0248538 39 35 40
0.357989 0.964593 0.0904875 120 129 138
0.341128 0.912834 0.0929761 112 122 129
0.374952 0.982665 0.0874693 36 43 52
0.729323 1.87112 0.0220798 34 40 45
0.572897 1.4648 0.0530973 18 14 19
0.461947 1.1729 0.0727185 36 47 51
0.398952 1.00054 0.0829809 123 126 131
0.418494 1.04353 0.0797059 14 25 33
0.359333 0.894931 0.0892059 108 117 126
0.945883 2.33951 -0.0401867 71 100 115
0.37231 0.903463 0.0868514 115 127 133
0.381461 0.9236 0.0853402 87 96 100
-0.988089 -2.394 0.0674154 47 66 87
0.780606 1.87221 0.00879382 106 115 119
0.43775 1.04212 0.0757648 105 113 120
0.33784 0.803413 0.091985 99 108 111
0.700993 1.59944 0.0253356 95 101 108
0.708695 1.58848 0.0232712 104 115 119
0.589989 1.3169 0.047321 99 104 113
0.460242 1.01245 0.0707318 15 25 35
0.860535 1.88711 -0.0143074 76 78 78
0.522812 1.14405 0.0595004 43 46 51
0.41842 0.904388 0.0777201 24 27 32
0.544628 1.16808 0.0551332 109 119 129
0.814317 1.73846 -0.00239947 141 147 146
0.550654 1.17388 0.0538989 24 33 46
0.726194 1.53094 0.0180441 36 42 47
0.692714 1.4483 0.025066 117 122 125
0.778115 1.61778 0.00564706 117 120 124
0.371032 0.769481 0.0851351 117 115 121
0.749665 1.54958 0.0122829 51 54 52
0.376813 0.771181 0.0840363 36 40 45
0.577672 1.17055 0.0479071 113 122 126
0.488068 0.983095 0.0645215 110 116 121
0.390993 0.763663 0.081161 91 92 102
0.765166 1.48264 0.00718947 114 117 122
0.505605 0.962834 0.0605942 64 58 63
0.495429 0.920463 0.0621321 140 136 135
0.495429 0.920463 0.0621321 140 136 135
0.419633 0.771714 0.0756041 108 113 116
0.686538 1.26076 0.0238727 61 60 64
0.425011 0.773241 0.074546 26 30 35
0.42028 0.764318 0.0753705 29 35 40
0.429911 0.775079 0.0735855 100 104 109
0.429134 0.752477 0.0734498 112 113 117
0.492429 0.859314 0.0618755 63 68 71
0.438517 0.764047 0.0716987 48 52 57
0.499172 0.862103 0.0604786 98 106 106
0.545858 0.938879 0.051578 42 40 40
0.446203 0.762744 0.0701195 91 97 102
0.0241692 0.96801 0.151228 126 136 143
0.114175 1.89262 0.15034 129 138 147
0.0684899 1.01228 0.144663 114 131 134
0.14504 2.1602 0.142433 124 136 140
0.135776 1.61581 0.143832 124 136 140
0.158877 1.81307 0.140569 124 134 141
0.105453 1.15989 0.141469 70 79 89
0.18637 1.884 0.135073 121 132 140
0.205605 1.77159 0.130841 126 138 140
0.199632 1.73065 0.1318 120 131 135
0.275466 2.36776 0.116204 95 107 117
0.198206 1.5776 0.13063 117 128 136
0.289969 2.05446 0.114951 114 126 132
0.278295 1.95587 0.117152 112 118 129
0.430429 2.67793 0.0886833 82 94 112
0.163769 0.973319 0.126975 119 129 139
0.262613 1.30506 0.114325 108 121 129
0.262613 1.30506 0.114325 108 121 129
0.262613 1.30506 0.114325 108 121 129
0.678197 2.87249 0.042814 215 236 234
0.280918 1.12485 0.10789 122 133 141
0.209567 0.840016 0.116248 33 39 50
0.598891 2.22347 0.0551631 121 131 138
0.813984 2.85435 0.0112494 52 71 84
0.755881 2.42414 0.0215544 43 46 54
0.485284 1.41059 0.0711087 114 123 133
0.874163 2.50104 -0.0098375 93 104 124
0.41889 1.19435 0.0818115 57 66 75
0.3064 0.868723 0.0989586 111 120 124
0.404873 1.14506 0.0839264 46 55 65
0.59039 1.66046 0.0516022 25 33 40
0.431766 1.20976 0.0794267 5 16 24
0.403149 1.12734 0.0840122 24 30 41
0.356508 0.994116 0.0912475 8 16 23
0.713047 1.99302 0.0273827 95 105 112
0.321859 0.892566 0.0963816 14 24 31
0.97462 2.70517 -0.052172 133 130 132
0.90553 2.47215 -0.0213458 166 172 183
0.973011 2.65254 -0.0516762 122 126 127
0.431081 1.12794 0.0783776 91 100 109
0.545407 1.4265 0.0585539 97 109 119
0.311063 0.810671 0.0971638 34 34 40
0.311063 0.810671 0.0971638 34 34 40
0.429121 1.11405 0.0785604 108 115 124
0.674439 1.74039 0.0335305 89 95 106
0.328545 0.842902 0.0943518 106 114 121
0.751509 1.93032 0.017223 29 28 37
0.412883 1.05073 0.0809245 108 118 128
0.542427 1.38056 0.0585573 43 52 61
0.373566 0.94071 0.0871093 105 113 120
0.433898 1.08305 0.0771582 111 123 127
0.473537 1.17312 0.0703067 108 115 124
0.366568 0.900365 0.0878911 33 43 50
0.420967 1.01107 0.0787162 106 108 116
0.686556 1.61456 0.0290231 25 30 33
0.843615 1.88386 -0.0086104 69 71 71
0.412047 0.90129 0.0789393 114 125 129
0.531527 1.14887 0.0576779 106 117 121
0.822143 1.69604 -0.00515085 109 113 114
0.394155 0.784835 0.0808251 46 48 56
0.40982 0.78285 0.0777119 114 121 124
0.465804 0.87818 0.0676776 100 110 117
0.452462 0.849206 0.0700246 112 116 117
0.421094 0.779435 0.0754016 117 120 124
0.474805 0.873825 0.065774 113 118 121
0.606753 1.08048 0.0400321 105 108 116
0.43999 0.774172 0.0715502 103 112 115
0.434976 0.754251 0.0722857 53 53 59
0.447173 0.770813 0.0700443 115 122 125
0.453583 0.772686 0.068784 37 48 46
0.501334 0.851656 0.0599021 44 49 48
0.0771458 1.44435 0.153063 120 126 131
0.149019 2.16437 0.141531 130 141 145
0.0820159 1.09029 0.144121 108 116 123
0.190826 2.21166 0.132757 122 128 133
0.172055 1.32482 0.132111 108 119 127
0.108927 0.840828 0.133829 56 66 76
0.116223 0.863882 0.133165 37 45 58
0.196242 1.32399 0.127497 118 128 138
0.205722 1.35849 0.126182 115 124 134
0.397174 2.26788 0.0948088 124 135 143
0.519739 2.94783 0.0734611 239 240 236
0.525409 2.42428 0.0711967 33 36 41
0.554142 2.42887 0.0658068 89 96 105
0.308271 1.34482 0.10592 116 128 134
0.559243 2.35024 0.0645184 43 49 60
0.691383 2.80444 0.0397258 81 101 106
0.470206 1.71867 0.0777353 115 126 134
0.781091 2.82435 0.0200865 63 86 88
0.592614 2.06973 0.0554777 120 130 137
0.607126 2.10343 0.0526734 78 86 93
0.557335 1.67933 0.0590957 103 113 120
0.36611 1.09141 0.0908141 115 125 132
0.448718 1.30151 0.0771945 100 109 122
0.548637 1.57796 0.0597674 115 126 134
0.309645 0.891042 0.098678 111 122 130
0.897217 2.56774 -0.0173579 110 128 151
0.365648 1.01557 0.0897897 44 55 59
0.345676 0.962788 0.0928776 24 32 39
0.739888 2.05983 0.0220167 95 97 107
0.379922 1.04967 0.0874564 111 120 130
0.313769 0.860805 0.149252 36 42 49
0.314906 0.866305 0.0972966 36 42 49
0.365177 1.00105 0.0897002 108 120 124
0.349404 0.951821 0.0919667 79 90 98
0.752607 2.01505 0.01826 105 109 114
0.563309 1.47572 0.0553091 131 133 134
0.599472 1.55147 0.0483769 128 138 145
0.637047 1.56444 0.0400377 109 116 125
0.510287 1.23592 0.0635 99 110 118
0.37221 0.873717 0.0863804 108 117 127
0.574428 1.33923 0.0509994 111 120 130
0.786173 1.75019 0.00545131 102 114 120
0.879872 1.93945 -0.0196817 40 43 47
0.930906 2.04493 -0.0385604 43 41 40
0.605184 1.30327 0.0437015 100 106 119
0.464587 1.00164 0.069681 106 108 119
0.629417 1.35064 0.0387229 26 26 26
0.556658 1.18812 0.0527465 81 90 100
0.534009 1.13612 0.0569863 27 28 32
0.479764 0.979167 0.0662435 24 20 25
0.59835 1.09032 0.0420391 118 126 125
0.0662416 1.42308 0.154829 58 64 75
0.0905573 1.89855 0.155274 118 129 133
0.0977271 1.67603 0.152753 123 135 139
0.0927091 1.42001 0.149538 50 61 69
0.247755 2.4197 0.120411 109 121 123
0.113082 0.941751 0.135238 70 95 105
0.236693 1.8382 0.12473 102 113 121
0.408504 2.55998 0.0925305 98 107 117
0.253095 1.53445 0.119479 24 34 51
0.284687 1.35505 0.110689 116 129 131
0.544456 2.29158 0.0668215 97 111 123
0.208492 0.8247 0.116176 62 74 86
0.234161 0.921361 0.11322 114 122 129
0.401248 1.56449 0.0900754 105 117 123
0.272865 0.929505 0.106092 57 66 69
0.324218 1.09627 0.0990839 53 59 64
0.478158 1.45063 0.0731159 110 120 127
0.367538 1.1101 0.0908507 51 60 73
0.276633 0.823929 0.10379 50 56 63
0.389942 1.13122 0.086687 102 113 121
0.527364 1.52197 0.0636591 121 130 139
0.361338 1.03943 0.0910285 116 127 131
0.30385 0.874635 0.099506 82 92 99
0.288168 0.827318 0.10169 120 129 133
0.623703 1.60025 0.0435235 101 111 118
0.496191 1.26874 0.0669468 94 104 114
0.743303 1.88526 0.0187084 87 100 108
0.376231 0.925774 0.0863818 87 97 104
0.758816 1.8416 0.0139809 91 101 108
0.494274 1.17608 0.0659954 107 116 125
0.354055 0.798578 0.0888315 118 127 130
0.647379 1.31052 0.0340472 113 125 127
0.751449 1.4479 0.0104042 53 53 53
0.445999 0.780425 0.0704681 31 31 31
0.550105 0.94553 0.0505944 134 136 137
0.0289567 1.08814 0.153618 102 113 121
0.034643 1.12387 0.153513 119 125 132
0.231815 2.17976 0.125515 124 132 139
0.14485 1.32706 0.137411 117 130 138
0.0975614 0.852909 0.136026 93 102 115
0.312375 2.49461 0.108816 59 68 78
0.227145 1.59149 0.125011 112 123 131
0.461016 2.9445 0.0837913 83 92 105
0.450942 2.26702 0.0849235 106 118 124
0.518447 2.53663 0.0730303 121 131 138
0.631507 2.07977 0.046915 68 77 87
0.450612 1.37425 0.0778335 51 60 73
0.321401 0.968669 0.0976563 56 66 76
0.457666 1.33324 0.0758244 94 104 114
0.37593 1.09233 0.0889347 105 117 129
0.426668 1.10762 0.0789725 98 105 114
0.724806 1.84823 0.0228809 28 26 32
0.443102 1.01091 0.0742041 95 104 114
0.757682 1.66534 0.0119049 91 103 109
0.632301 1.27479 0.0370097 110 119 123
0.15072 1.46775 0.138736 24 26 34
0.133691 1.28226 0.138882 36 43 52
0.18857 1.77123 0.134113 120 131 135
0.322528 2.37109 0.107827 117 125 132
0.397866 2.18638 0.0947535 30 31 41
0.458169 2.12911 0.0830831 36 38 49
0.260556 1.12682 0.111793 117 129 135
0.293063 1.07242 0.10467 106 114 127
0.253178 0.918553 0.109631 110 121 125
0.782996 2.73995 0.0189036 61 70 67
0.337078 1.16082 0.0976168 60 69 79
